ncols        87
nrows        76
xllcorner    -103.382361111101
yllcorner    20.749583333328
cellsize     0.000277777778
NODATA_value -32768
 1581 1576 1571 1566 1559 1553 1544 1526 1510 1498 1492 1486 1483 1483 1480 1482 1486 1493 1506 1518 1529 1535 1540 1546 1553 1557 1558 1557 1553 1549 1545 1543 1542 1538 1535 1530 1522 1515 1507 1492 1483 1480 1480 1485 1498 1511 1525 1539 1549 1552 1555 1557 1559 1560 1553 1548 1547 1546 1555 1573 1587 1595 1601 1606 1610 1613 1619 1625 1624 1623 1622 1624 1622 1622 1622 1621 1622 1626 1628 1626 1624 1623 1622 1622 1622 1621 1620
 1589 1584 1578 1574 1567 1559 1545 1531 1514 1502 1495 1489 1490 1491 1492 1490 1490 1493 1507 1524 1535 1541 1543 1550 1554 1557 1558 1555 1549 1546 1543 1540 1537 1534 1530 1527 1521 1515 1506 1492 1484 1483 1485 1491 1502 1514 1528 1543 1554 1559 1562 1569 1573 1575 1571 1571 1572 1573 1580 1593 1604 1610 1613 1616 1617 1617 1620 1625 1625 1625 1626 1626 1625 1625 1625 1625 1625 1626 1626 1623 1623 1624 1625 1624 1623 1621 1620
 1597 1590 1583 1577 1569 1561 1545 1533 1520 1509 1502 1497 1496 1498 1500 1495 1493 1497 1512 1530 1538 1544 1547 1553 1559 1562 1562 1556 1547 1546 1544 1540 1539 1534 1531 1527 1521 1516 1511 1501 1493 1492 1491 1496 1506 1520 1534 1549 1561 1568 1576 1583 1589 1591 1591 1590 1590 1593 1601 1611 1617 1618 1619 1624 1626 1624 1624 1625 1626 1626 1627 1626 1625 1626 1628 1628 1626 1625 1624 1623 1624 1625 1626 1625 1623 1622 1621
 1606 1600 1590 1580 1571 1562 1542 1531 1522 1515 1510 1506 1509 1512 1506 1499 1496 1503 1522 1532 1538 1545 1552 1557 1563 1565 1565 1559 1553 1549 1547 1544 1543 1538 1531 1527 1524 1519 1516 1513 1510 1503 1498 1501 1509 1522 1538 1554 1566 1577 1584 1592 1600 1609 1612 1610 1609 1613 1618 1620 1622 1623 1625 1628 1629 1628 1628 1627 1627 1627 1626 1626 1627 1628 1631 1628 1625 1624 1624 1624 1625 1626 1626 1625 1623 1621 1620
 1614 1609 1598 1583 1571 1559 1543 1533 1527 1524 1522 1521 1523 1523 1515 1503 1500 1510 1521 1529 1537 1548 1556 1561 1565 1568 1567 1564 1558 1554 1551 1548 1544 1538 1529 1525 1523 1521 1520 1521 1518 1512 1506 1505 1512 1523 1537 1556 1571 1582 1591 1597 1606 1620 1626 1624 1624 1626 1624 1623 1625 1628 1629 1629 1628 1629 1629 1628 1627 1626 1627 1628 1628 1630 1630 1628 1626 1624 1624 1624 1625 1626 1625 1624 1623 1622 1619
 1616 1612 1601 1583 1573 1563 1551 1543 1538 1541 1538 1541 1537 1533 1524 1514 1508 1505 1512 1525 1535 1546 1558 1566 1569 1574 1573 1567 1563 1558 1555 1550 1544 1535 1527 1520 1519 1519 1521 1522 1522 1519 1515 1513 1518 1527 1537 1557 1572 1586 1597 1604 1611 1621 1626 1627 1630 1633 1628 1625 1627 1629 1630 1630 1631 1631 1629 1627 1625 1625 1628 1630 1632 1630 1629 1629 1627 1625 1624 1624 1624 1625 1626 1625 1624 1622 1619
 1615 1611 1600 1585 1577 1572 1563 1555 1553 1553 1553 1552 1548 1544 1537 1529 1516 1510 1512 1521 1533 1546 1561 1568 1573 1579 1580 1573 1571 1566 1560 1554 1546 1536 1528 1519 1517 1519 1523 1524 1527 1528 1526 1523 1526 1531 1541 1556 1571 1586 1597 1607 1615 1620 1623 1628 1632 1632 1630 1628 1628 1630 1630 1632 1633 1632 1629 1626 1626 1627 1627 1629 1631 1630 1629 1629 1628 1627 1627 1627 1627 1627 1627 1628 1628 1625 1624
 1616 1613 1605 1595 1587 1578 1569 1562 1558 1556 1557 1561 1560 1556 1550 1542 1532 1520 1514 1520 1532 1550 1563 1569 1576 1581 1583 1581 1579 1574 1567 1562 1553 1543 1535 1525 1521 1523 1526 1528 1533 1535 1535 1536 1540 1541 1549 1563 1573 1583 1596 1609 1617 1618 1622 1628 1631 1631 1630 1630 1630 1630 1630 1631 1632 1632 1631 1628 1628 1631 1629 1628 1630 1630 1630 1629 1628 1629 1630 1630 1629 1627 1629 1631 1629 1627 1627
 1615 1616 1614 1606 1595 1585 1575 1567 1561 1561 1565 1563 1561 1556 1553 1548 1540 1524 1514 1515 1532 1552 1562 1572 1578 1582 1585 1585 1582 1579 1576 1570 1560 1551 1541 1530 1526 1527 1530 1535 1541 1546 1547 1552 1557 1557 1565 1571 1578 1586 1597 1608 1617 1621 1622 1626 1629 1630 1630 1630 1631 1631 1629 1629 1631 1632 1632 1630 1630 1632 1631 1629 1631 1632 1631 1630 1629 1631 1632 1631 1629 1629 1632 1634 1630 1628 1627
 1611 1615 1613 1607 1599 1589 1579 1572 1567 1570 1567 1562 1557 1552 1547 1544 1535 1522 1512 1518 1532 1546 1557 1567 1576 1581 1585 1587 1587 1585 1581 1577 1569 1560 1545 1531 1531 1535 1538 1541 1549 1559 1561 1563 1569 1574 1578 1580 1587 1593 1601 1611 1621 1627 1626 1625 1628 1630 1629 1629 1629 1629 1629 1631 1632 1633 1632 1631 1630 1631 1631 1630 1632 1634 1632 1632 1632 1633 1633 1631 1629 1631 1634 1635 1631 1628 1628
 1609 1610 1609 1604 1598 1586 1579 1574 1572 1573 1569 1562 1556 1550 1541 1536 1530 1519 1515 1522 1535 1544 1551 1561 1572 1580 1588 1591 1590 1588 1585 1581 1572 1563 1543 1535 1538 1545 1549 1556 1567 1572 1576 1576 1583 1590 1590 1592 1594 1598 1606 1615 1622 1625 1626 1625 1628 1630 1630 1629 1628 1629 1632 1634 1635 1634 1633 1633 1633 1631 1630 1631 1634 1634 1633 1633 1634 1635 1634 1632 1631 1631 1632 1632 1629 1630 1630
 1610 1610 1607 1600 1592 1582 1578 1575 1572 1570 1567 1563 1560 1554 1542 1531 1524 1515 1512 1524 1535 1543 1552 1562 1572 1583 1589 1592 1593 1591 1590 1584 1574 1564 1554 1547 1547 1552 1559 1569 1578 1582 1586 1588 1595 1601 1603 1601 1599 1602 1610 1617 1620 1624 1625 1626 1628 1629 1628 1629 1630 1632 1634 1636 1636 1636 1634 1635 1634 1632 1632 1634 1636 1635 1635 1635 1634 1636 1635 1634 1633 1631 1629 1629 1631 1632 1633
 1611 1608 1601 1596 1588 1580 1574 1572 1571 1567 1565 1565 1563 1557 1543 1529 1523 1516 1517 1525 1536 1545 1553 1568 1579 1587 1592 1595 1596 1595 1593 1587 1577 1568 1564 1559 1555 1558 1565 1576 1583 1588 1594 1596 1602 1607 1610 1608 1605 1607 1613 1618 1621 1624 1625 1626 1629 1631 1631 1631 1632 1633 1636 1637 1638 1638 1637 1638 1638 1635 1634 1636 1637 1636 1636 1635 1636 1636 1636 1633 1632 1630 1628 1629 1630 1629 1631
 1609 1601 1595 1592 1584 1572 1569 1569 1569 1568 1568 1566 1561 1553 1541 1532 1531 1529 1531 1539 1548 1553 1561 1575 1588 1594 1597 1599 1599 1599 1597 1591 1582 1576 1572 1568 1564 1568 1574 1582 1589 1596 1600 1605 1608 1609 1612 1614 1613 1612 1615 1618 1621 1623 1623 1625 1629 1632 1633 1635 1634 1634 1636 1638 1639 1639 1639 1642 1642 1638 1637 1638 1638 1637 1637 1637 1637 1638 1636 1633 1632 1628 1627 1628 1625 1624 1626
 1605 1598 1592 1587 1577 1571 1567 1565 1567 1569 1571 1570 1558 1547 1539 1537 1540 1543 1549 1556 1563 1567 1573 1584 1593 1599 1601 1601 1601 1601 1600 1596 1589 1583 1581 1575 1573 1577 1581 1586 1593 1599 1604 1608 1609 1612 1614 1616 1616 1615 1616 1616 1618 1623 1624 1626 1629 1631 1634 1635 1634 1635 1639 1641 1641 1640 1640 1643 1641 1640 1640 1640 1639 1638 1639 1639 1639 1638 1634 1634 1633 1629 1627 1626 1624 1621 1624
 1604 1596 1589 1582 1576 1570 1564 1562 1565 1567 1570 1565 1555 1542 1537 1542 1548 1554 1562 1567 1576 1580 1586 1594 1603 1608 1608 1607 1605 1602 1601 1600 1594 1590 1589 1587 1585 1585 1586 1588 1595 1602 1606 1609 1610 1612 1615 1617 1618 1617 1616 1616 1617 1620 1625 1627 1628 1629 1632 1633 1632 1638 1642 1643 1642 1639 1639 1640 1639 1639 1640 1641 1641 1640 1640 1640 1639 1635 1633 1633 1632 1629 1629 1628 1627 1624 1623
 1600 1593 1585 1579 1573 1567 1563 1563 1567 1568 1567 1562 1551 1546 1545 1549 1554 1561 1568 1577 1587 1594 1601 1606 1613 1616 1615 1612 1609 1604 1604 1603 1599 1595 1596 1598 1595 1590 1589 1590 1596 1602 1606 1610 1610 1611 1616 1618 1618 1617 1618 1618 1618 1620 1625 1629 1629 1629 1631 1632 1632 1636 1642 1642 1640 1639 1640 1641 1639 1639 1642 1644 1643 1643 1641 1639 1638 1636 1635 1634 1630 1630 1631 1632 1629 1626 1624
 1595 1589 1585 1578 1571 1564 1562 1564 1567 1567 1565 1560 1553 1549 1551 1554 1560 1566 1574 1581 1592 1600 1608 1610 1614 1614 1614 1614 1613 1610 1608 1605 1601 1603 1604 1607 1603 1596 1592 1592 1597 1602 1606 1609 1609 1610 1614 1616 1616 1617 1618 1621 1622 1623 1626 1630 1630 1630 1632 1633 1634 1637 1640 1642 1642 1643 1645 1642 1639 1639 1641 1642 1643 1643 1642 1640 1639 1639 1638 1635 1632 1633 1635 1634 1631 1627 1625
 1596 1591 1586 1579 1568 1562 1562 1563 1565 1563 1562 1559 1553 1553 1557 1560 1565 1571 1575 1582 1593 1603 1610 1611 1608 1610 1612 1613 1614 1614 1611 1608 1608 1608 1611 1612 1609 1603 1596 1595 1598 1602 1605 1607 1608 1608 1611 1615 1617 1618 1618 1620 1623 1623 1625 1629 1631 1632 1633 1635 1636 1639 1641 1643 1644 1645 1645 1643 1640 1643 1643 1642 1643 1645 1643 1639 1639 1640 1640 1637 1635 1636 1636 1634 1629 1625 1624
 1596 1591 1587 1578 1568 1565 1564 1564 1563 1561 1562 1559 1556 1557 1561 1564 1568 1572 1576 1584 1592 1604 1611 1610 1609 1611 1613 1612 1615 1615 1614 1612 1610 1611 1613 1615 1612 1608 1603 1600 1600 1604 1604 1606 1607 1607 1608 1613 1617 1617 1616 1618 1620 1622 1625 1629 1631 1633 1634 1635 1636 1638 1640 1643 1645 1645 1645 1644 1645 1647 1647 1643 1644 1646 1644 1640 1640 1640 1641 1640 1638 1638 1636 1632 1627 1624 1623
 1594 1593 1586 1576 1569 1567 1566 1564 1562 1562 1565 1564 1558 1559 1562 1565 1569 1572 1578 1583 1589 1601 1610 1609 1613 1614 1614 1613 1615 1617 1614 1612 1610 1612 1615 1616 1615 1614 1611 1608 1609 1609 1607 1607 1607 1606 1607 1611 1613 1615 1618 1618 1619 1623 1626 1629 1631 1634 1635 1636 1637 1637 1640 1644 1645 1645 1646 1645 1645 1647 1645 1643 1643 1644 1640 1639 1639 1642 1645 1642 1640 1636 1633 1631 1627 1622 1623
 1595 1593 1585 1577 1572 1569 1568 1567 1564 1564 1567 1567 1563 1562 1562 1565 1570 1573 1578 1584 1593 1603 1608 1611 1613 1615 1613 1612 1614 1614 1614 1612 1614 1616 1617 1617 1617 1617 1616 1615 1615 1612 1609 1608 1608 1608 1609 1610 1611 1614 1618 1619 1619 1622 1625 1629 1633 1635 1636 1637 1637 1638 1641 1644 1646 1646 1645 1645 1645 1644 1642 1641 1641 1639 1638 1638 1643 1650 1651 1646 1635 1631 1628 1627 1625 1623 1623
 1595 1590 1583 1577 1574 1571 1569 1570 1567 1565 1566 1567 1566 1564 1565 1567 1569 1572 1577 1586 1595 1603 1607 1610 1613 1614 1613 1613 1614 1615 1614 1616 1618 1619 1619 1620 1619 1618 1617 1617 1617 1612 1611 1612 1611 1611 1610 1609 1609 1613 1617 1619 1622 1624 1625 1629 1632 1633 1635 1638 1639 1641 1642 1645 1646 1647 1646 1645 1646 1643 1640 1638 1635 1635 1637 1643 1648 1652 1651 1644 1628 1624 1625 1626 1626 1624 1624
 1599 1592 1582 1576 1573 1571 1569 1570 1569 1568 1568 1570 1569 1567 1568 1568 1567 1570 1577 1587 1597 1602 1606 1608 1612 1615 1615 1615 1616 1617 1617 1619 1621 1620 1621 1619 1618 1618 1617 1618 1619 1618 1617 1617 1615 1612 1609 1608 1609 1611 1618 1622 1625 1626 1627 1629 1632 1633 1636 1640 1642 1643 1644 1644 1645 1645 1644 1645 1646 1641 1636 1631 1630 1632 1638 1642 1645 1646 1641 1632 1624 1621 1625 1628 1627 1625 1624
 1597 1593 1581 1575 1572 1571 1570 1571 1572 1573 1572 1571 1569 1570 1570 1568 1568 1571 1578 1590 1595 1599 1603 1606 1610 1613 1613 1613 1615 1617 1618 1619 1621 1622 1622 1619 1617 1617 1618 1619 1620 1621 1620 1620 1618 1616 1613 1612 1613 1616 1620 1623 1627 1627 1628 1631 1634 1635 1637 1640 1642 1644 1644 1642 1642 1640 1640 1643 1645 1640 1637 1636 1635 1638 1638 1639 1638 1637 1633 1631 1623 1623 1626 1628 1626 1623 1622
 1593 1588 1582 1576 1575 1573 1574 1576 1579 1579 1580 1576 1575 1573 1569 1568 1568 1575 1582 1587 1592 1596 1601 1604 1607 1610 1611 1610 1612 1615 1615 1618 1621 1623 1623 1622 1619 1620 1620 1621 1622 1622 1621 1621 1621 1621 1617 1616 1617 1619 1624 1627 1627 1627 1628 1632 1635 1636 1637 1639 1641 1641 1642 1642 1642 1640 1640 1642 1641 1640 1641 1641 1640 1639 1637 1633 1631 1633 1633 1631 1628 1626 1626 1626 1623 1620 1618
 1591 1589 1585 1582 1579 1578 1579 1582 1584 1584 1582 1582 1583 1579 1570 1568 1569 1574 1581 1587 1592 1596 1602 1603 1605 1610 1611 1610 1610 1613 1615 1616 1620 1622 1623 1622 1621 1621 1623 1625 1627 1625 1624 1625 1627 1625 1620 1619 1620 1623 1630 1632 1631 1629 1629 1632 1635 1636 1636 1637 1638 1639 1640 1643 1644 1642 1641 1640 1640 1640 1640 1640 1639 1636 1635 1635 1631 1629 1629 1629 1627 1624 1625 1624 1621 1619 1617
 1591 1590 1588 1587 1585 1583 1585 1586 1585 1584 1581 1582 1585 1582 1573 1570 1568 1572 1579 1587 1592 1594 1599 1600 1605 1609 1609 1607 1608 1612 1615 1616 1619 1619 1620 1620 1621 1622 1624 1626 1627 1626 1625 1629 1630 1628 1624 1623 1625 1629 1636 1635 1634 1632 1631 1631 1633 1635 1635 1636 1637 1638 1639 1639 1640 1640 1642 1643 1643 1642 1641 1639 1636 1635 1638 1638 1632 1626 1626 1626 1625 1623 1623 1622 1619 1615 1615
 1591 1591 1591 1590 1589 1589 1588 1589 1587 1583 1581 1582 1584 1583 1575 1570 1569 1571 1579 1585 1588 1592 1596 1599 1602 1606 1607 1607 1607 1610 1612 1615 1617 1617 1618 1619 1621 1622 1624 1625 1626 1625 1625 1628 1630 1629 1628 1628 1630 1634 1636 1635 1635 1635 1633 1631 1631 1634 1634 1634 1636 1636 1636 1635 1635 1637 1642 1644 1645 1644 1643 1640 1637 1637 1638 1635 1625 1623 1623 1623 1621 1617 1620 1619 1615 1610 1608
 1593 1592 1592 1592 1593 1593 1591 1590 1587 1581 1580 1581 1583 1580 1574 1570 1570 1573 1578 1582 1583 1589 1594 1596 1597 1602 1606 1608 1607 1607 1609 1611 1613 1613 1616 1620 1622 1623 1625 1627 1629 1626 1626 1628 1631 1631 1630 1632 1634 1636 1637 1635 1635 1636 1634 1632 1633 1633 1633 1632 1631 1631 1633 1633 1634 1636 1639 1642 1644 1645 1644 1641 1639 1637 1631 1624 1619 1618 1617 1617 1615 1616 1617 1615 1610 1604 1600
 1595 1593 1593 1592 1594 1594 1591 1589 1583 1578 1577 1581 1583 1582 1580 1574 1574 1575 1578 1580 1581 1585 1589 1590 1590 1595 1603 1605 1603 1602 1605 1608 1609 1612 1616 1620 1621 1622 1624 1629 1630 1630 1629 1632 1633 1631 1631 1632 1634 1638 1638 1637 1637 1638 1635 1634 1634 1634 1633 1629 1626 1626 1628 1630 1632 1636 1637 1639 1642 1643 1642 1642 1643 1639 1630 1619 1615 1615 1614 1613 1612 1613 1612 1607 1603 1598 1594
 1597 1595 1594 1593 1595 1594 1591 1587 1584 1580 1580 1584 1586 1588 1589 1584 1580 1576 1578 1581 1583 1584 1586 1588 1588 1590 1596 1600 1600 1600 1602 1607 1610 1613 1615 1617 1618 1620 1624 1629 1630 1630 1631 1634 1635 1633 1631 1633 1635 1637 1639 1638 1640 1640 1638 1636 1634 1634 1633 1629 1625 1624 1624 1624 1629 1634 1635 1639 1642 1641 1640 1643 1644 1638 1625 1617 1614 1611 1609 1606 1606 1609 1604 1599 1597 1591 1588
 1598 1597 1596 1595 1594 1593 1588 1584 1583 1583 1583 1584 1586 1588 1591 1590 1584 1579 1580 1582 1585 1583 1583 1585 1586 1587 1593 1598 1600 1601 1604 1607 1611 1611 1610 1613 1617 1622 1625 1626 1627 1628 1630 1633 1635 1635 1634 1635 1634 1637 1639 1641 1640 1640 1640 1636 1635 1636 1635 1633 1627 1622 1621 1621 1627 1631 1633 1637 1640 1640 1639 1639 1640 1631 1622 1616 1610 1605 1604 1601 1598 1596 1595 1594 1588 1583 1579
 1597 1597 1597 1595 1593 1590 1586 1583 1584 1585 1585 1584 1585 1586 1588 1589 1587 1585 1584 1584 1586 1586 1585 1588 1592 1591 1595 1599 1601 1602 1604 1606 1605 1606 1610 1612 1617 1620 1621 1622 1623 1626 1628 1630 1632 1634 1635 1636 1636 1638 1640 1641 1640 1640 1638 1635 1634 1635 1635 1633 1628 1622 1617 1619 1625 1628 1630 1634 1636 1638 1635 1634 1630 1623 1615 1611 1607 1604 1601 1596 1590 1589 1589 1586 1582 1578 1574
 1594 1595 1596 1593 1591 1590 1587 1586 1587 1587 1587 1586 1585 1585 1585 1587 1589 1588 1587 1589 1591 1589 1589 1592 1594 1593 1593 1598 1599 1599 1600 1600 1600 1604 1609 1612 1615 1617 1617 1618 1619 1622 1625 1626 1627 1631 1636 1637 1636 1637 1639 1640 1640 1639 1635 1632 1631 1631 1630 1630 1625 1618 1614 1615 1620 1627 1630 1633 1635 1636 1634 1631 1627 1617 1609 1607 1605 1602 1599 1594 1588 1587 1586 1585 1583 1583 1580
 1592 1594 1594 1592 1591 1589 1587 1586 1586 1586 1585 1585 1586 1585 1583 1586 1590 1589 1589 1590 1592 1590 1588 1589 1590 1589 1591 1594 1594 1592 1594 1595 1598 1602 1606 1609 1612 1615 1615 1615 1617 1619 1619 1620 1622 1628 1635 1636 1634 1633 1635 1635 1633 1632 1631 1630 1628 1627 1627 1624 1620 1615 1612 1611 1617 1626 1633 1636 1638 1637 1633 1629 1624 1616 1610 1606 1603 1599 1597 1594 1588 1588 1588 1589 1592 1592 1590
 1593 1595 1594 1592 1591 1587 1584 1582 1582 1581 1581 1583 1584 1582 1581 1585 1589 1589 1589 1591 1592 1591 1588 1587 1588 1588 1588 1588 1590 1590 1592 1595 1597 1601 1605 1607 1609 1611 1613 1614 1614 1614 1614 1616 1618 1624 1630 1632 1630 1631 1629 1627 1628 1627 1627 1624 1621 1621 1621 1619 1617 1614 1612 1613 1620 1628 1634 1638 1641 1637 1630 1626 1621 1616 1611 1605 1601 1599 1599 1596 1593 1590 1591 1592 1595 1595 1595
 1594 1593 1591 1590 1588 1585 1582 1582 1579 1579 1580 1582 1581 1578 1576 1580 1586 1589 1590 1592 1592 1591 1590 1589 1588 1588 1587 1588 1590 1591 1593 1595 1598 1601 1606 1609 1607 1608 1611 1613 1612 1611 1612 1613 1616 1620 1625 1628 1628 1627 1627 1628 1628 1626 1624 1619 1614 1613 1612 1611 1610 1610 1612 1617 1623 1629 1635 1640 1642 1637 1630 1623 1618 1615 1613 1609 1605 1603 1604 1603 1597 1594 1593 1593 1595 1596 1595
 1591 1589 1586 1584 1584 1583 1584 1582 1580 1578 1579 1581 1579 1575 1573 1575 1581 1588 1592 1592 1590 1590 1590 1589 1589 1588 1586 1587 1589 1590 1593 1596 1598 1601 1604 1606 1607 1606 1609 1611 1610 1609 1610 1611 1616 1618 1622 1625 1625 1625 1627 1627 1625 1624 1621 1614 1608 1606 1605 1604 1604 1606 1615 1623 1628 1632 1637 1640 1641 1635 1628 1621 1619 1618 1617 1615 1613 1612 1609 1605 1602 1600 1596 1593 1595 1595 1594
 1586 1584 1581 1578 1579 1581 1582 1581 1577 1576 1577 1580 1578 1578 1578 1577 1580 1588 1591 1588 1586 1586 1587 1587 1587 1586 1586 1586 1587 1589 1593 1597 1598 1598 1599 1601 1602 1602 1604 1608 1607 1607 1608 1611 1614 1615 1618 1620 1621 1624 1625 1623 1621 1618 1614 1608 1603 1600 1599 1600 1602 1609 1620 1629 1632 1637 1638 1640 1640 1636 1631 1625 1625 1625 1625 1622 1618 1613 1611 1608 1605 1605 1601 1595 1596 1598 1598
 1583 1583 1579 1574 1577 1579 1579 1578 1576 1575 1577 1578 1580 1581 1582 1582 1585 1590 1587 1582 1582 1583 1584 1585 1584 1584 1584 1585 1586 1589 1593 1595 1597 1596 1596 1595 1596 1595 1596 1599 1603 1604 1606 1608 1611 1613 1615 1618 1621 1622 1621 1618 1616 1611 1607 1604 1601 1597 1595 1597 1602 1608 1621 1630 1635 1639 1641 1641 1639 1638 1638 1636 1633 1632 1630 1626 1620 1616 1616 1612 1607 1605 1602 1599 1599 1600 1600
 1581 1583 1578 1576 1578 1579 1578 1577 1576 1574 1574 1576 1577 1579 1580 1584 1590 1591 1585 1580 1581 1582 1584 1584 1583 1583 1583 1585 1588 1589 1589 1592 1595 1596 1595 1592 1591 1592 1591 1595 1598 1600 1603 1607 1610 1611 1614 1617 1618 1618 1614 1612 1609 1604 1602 1600 1597 1594 1593 1598 1604 1613 1621 1631 1637 1640 1641 1640 1639 1640 1641 1639 1637 1634 1632 1629 1626 1625 1621 1615 1607 1604 1602 1601 1600 1599 1598
 1579 1581 1581 1579 1578 1578 1577 1577 1577 1574 1572 1571 1574 1576 1579 1582 1589 1592 1588 1583 1583 1583 1583 1583 1581 1580 1581 1585 1590 1591 1589 1590 1594 1594 1592 1589 1588 1590 1591 1593 1596 1595 1602 1607 1608 1607 1611 1613 1612 1613 1610 1607 1605 1602 1599 1597 1594 1593 1595 1601 1609 1614 1621 1626 1631 1634 1637 1640 1641 1643 1642 1640 1639 1636 1634 1633 1632 1629 1625 1616 1610 1606 1603 1602 1601 1597 1594
 1578 1580 1581 1578 1576 1575 1576 1577 1577 1575 1572 1571 1574 1579 1580 1583 1587 1590 1589 1586 1585 1584 1583 1581 1579 1577 1577 1585 1591 1591 1589 1590 1590 1591 1588 1585 1587 1591 1592 1594 1595 1595 1600 1606 1606 1605 1607 1609 1610 1610 1607 1603 1602 1598 1597 1593 1590 1591 1595 1601 1608 1612 1614 1618 1623 1626 1633 1638 1642 1643 1641 1639 1638 1637 1636 1635 1632 1630 1628 1621 1617 1614 1608 1603 1600 1595 1591
 1577 1579 1579 1576 1574 1574 1574 1575 1576 1574 1572 1575 1577 1581 1583 1584 1586 1588 1587 1586 1585 1585 1583 1581 1579 1578 1578 1584 1586 1586 1587 1588 1589 1587 1582 1581 1586 1589 1590 1591 1593 1595 1599 1602 1602 1601 1603 1606 1608 1609 1606 1601 1596 1593 1592 1588 1585 1590 1594 1600 1606 1609 1609 1610 1616 1621 1628 1634 1638 1639 1638 1636 1636 1637 1638 1634 1633 1633 1632 1628 1627 1619 1612 1606 1599 1597 1593
 1575 1576 1576 1575 1575 1574 1573 1573 1573 1572 1572 1575 1578 1582 1585 1587 1588 1588 1587 1586 1584 1584 1584 1582 1581 1579 1580 1580 1582 1583 1584 1585 1584 1580 1578 1580 1584 1587 1587 1589 1592 1596 1599 1600 1598 1597 1599 1604 1605 1604 1600 1597 1594 1589 1588 1584 1584 1589 1594 1599 1603 1604 1603 1605 1610 1618 1624 1629 1633 1634 1633 1632 1633 1635 1634 1632 1634 1635 1631 1629 1628 1622 1615 1610 1604 1603 1599
 1571 1572 1572 1574 1575 1576 1574 1572 1572 1571 1571 1574 1576 1581 1584 1587 1589 1588 1586 1585 1583 1582 1583 1583 1581 1578 1578 1578 1579 1580 1578 1578 1577 1576 1578 1583 1585 1586 1587 1590 1594 1598 1598 1597 1596 1596 1598 1600 1598 1595 1595 1595 1591 1588 1587 1585 1584 1586 1591 1595 1598 1598 1597 1600 1606 1615 1622 1623 1627 1629 1628 1628 1629 1631 1630 1629 1630 1632 1632 1631 1629 1625 1620 1615 1611 1609 1601
 1569 1569 1569 1569 1572 1573 1572 1572 1572 1572 1572 1574 1576 1577 1580 1584 1586 1587 1586 1584 1581 1579 1581 1581 1578 1576 1575 1575 1575 1576 1576 1577 1576 1577 1581 1584 1585 1587 1590 1593 1596 1598 1596 1595 1595 1596 1596 1596 1592 1590 1591 1592 1590 1587 1585 1584 1582 1583 1585 1590 1592 1592 1593 1595 1603 1612 1616 1618 1621 1624 1623 1624 1626 1627 1626 1626 1626 1628 1632 1632 1630 1627 1624 1621 1617 1612 1602
 1569 1569 1567 1565 1566 1567 1570 1570 1571 1572 1574 1577 1577 1574 1577 1582 1586 1587 1585 1582 1577 1574 1576 1579 1574 1572 1572 1571 1571 1574 1574 1577 1579 1580 1582 1584 1585 1587 1591 1592 1594 1592 1591 1589 1591 1592 1592 1591 1590 1589 1588 1588 1588 1585 1582 1581 1581 1581 1584 1588 1589 1589 1589 1594 1600 1605 1609 1613 1617 1619 1620 1620 1621 1622 1620 1622 1621 1623 1629 1630 1630 1627 1625 1624 1619 1612 1601
 1569 1568 1567 1565 1564 1567 1568 1568 1570 1573 1575 1577 1578 1577 1579 1584 1586 1585 1584 1581 1575 1571 1570 1570 1570 1569 1571 1569 1568 1569 1572 1576 1580 1581 1584 1584 1584 1586 1589 1590 1589 1587 1585 1585 1586 1587 1587 1586 1587 1585 1584 1587 1587 1585 1580 1580 1579 1579 1582 1585 1585 1584 1584 1587 1595 1601 1603 1606 1611 1614 1616 1615 1611 1611 1614 1617 1617 1618 1621 1624 1626 1625 1625 1625 1620 1614 1601
 1568 1566 1566 1564 1564 1567 1569 1569 1570 1573 1574 1575 1578 1580 1582 1585 1586 1584 1584 1582 1576 1571 1566 1567 1569 1570 1569 1567 1566 1567 1571 1574 1577 1579 1582 1582 1582 1584 1586 1587 1588 1586 1583 1582 1584 1586 1585 1584 1584 1583 1583 1586 1587 1583 1582 1580 1577 1576 1578 1579 1578 1578 1581 1585 1588 1593 1597 1601 1607 1609 1609 1605 1602 1604 1609 1612 1612 1614 1615 1617 1618 1619 1619 1616 1613 1611 1603
 1566 1565 1564 1563 1562 1566 1570 1571 1571 1573 1572 1573 1577 1581 1582 1585 1587 1586 1585 1584 1576 1568 1567 1569 1571 1571 1568 1567 1568 1570 1572 1573 1574 1576 1577 1579 1580 1581 1582 1585 1587 1585 1581 1580 1583 1584 1583 1583 1584 1583 1584 1586 1585 1583 1583 1582 1578 1575 1575 1575 1575 1576 1580 1582 1584 1587 1593 1600 1604 1605 1603 1601 1599 1599 1601 1606 1608 1610 1611 1613 1614 1614 1611 1607 1605 1605 1602
 1565 1564 1563 1561 1562 1568 1571 1572 1573 1573 1572 1571 1576 1581 1583 1584 1584 1584 1583 1579 1572 1570 1572 1572 1570 1567 1566 1567 1571 1573 1573 1574 1575 1576 1577 1578 1581 1582 1583 1585 1585 1582 1580 1580 1582 1581 1580 1581 1582 1582 1582 1582 1581 1580 1581 1580 1577 1574 1573 1572 1572 1574 1576 1580 1581 1585 1591 1595 1598 1599 1599 1598 1597 1596 1597 1600 1603 1605 1607 1610 1612 1612 1607 1602 1602 1601 1600
 1565 1564 1563 1562 1563 1568 1570 1573 1574 1574 1573 1572 1576 1581 1583 1579 1578 1575 1574 1572 1572 1572 1574 1572 1568 1565 1564 1567 1571 1573 1573 1574 1575 1577 1579 1582 1583 1584 1584 1586 1585 1583 1581 1582 1582 1580 1578 1579 1578 1578 1580 1579 1578 1577 1577 1576 1573 1570 1569 1568 1570 1572 1574 1578 1583 1585 1589 1591 1592 1593 1594 1594 1592 1593 1593 1596 1599 1599 1602 1606 1608 1608 1603 1597 1598 1600 1600
 1565 1565 1565 1566 1567 1568 1570 1572 1574 1575 1574 1573 1575 1578 1578 1574 1567 1568 1569 1572 1572 1573 1573 1571 1566 1564 1564 1568 1570 1573 1574 1575 1575 1576 1580 1583 1585 1585 1584 1584 1585 1584 1583 1581 1579 1577 1576 1575 1575 1575 1575 1577 1576 1576 1575 1573 1571 1570 1568 1567 1570 1573 1574 1576 1580 1582 1586 1588 1586 1585 1587 1588 1588 1589 1591 1594 1595 1596 1598 1602 1604 1603 1598 1593 1594 1596 1596
 1567 1568 1568 1568 1568 1568 1569 1571 1573 1574 1574 1572 1573 1573 1573 1570 1566 1567 1571 1572 1571 1570 1570 1568 1566 1565 1565 1567 1572 1573 1573 1574 1574 1575 1579 1583 1585 1584 1584 1585 1585 1584 1582 1580 1578 1576 1573 1571 1572 1569 1571 1573 1574 1575 1574 1574 1572 1570 1568 1566 1569 1574 1574 1575 1577 1579 1582 1583 1581 1581 1582 1583 1584 1586 1588 1590 1593 1594 1596 1600 1601 1600 1597 1592 1588 1589 1592
 1569 1569 1569 1568 1567 1567 1568 1569 1571 1572 1573 1573 1573 1574 1573 1570 1568 1570 1573 1571 1569 1567 1567 1568 1567 1565 1565 1567 1571 1572 1571 1571 1574 1575 1577 1581 1582 1581 1584 1586 1585 1583 1580 1580 1578 1575 1572 1571 1570 1568 1568 1570 1571 1572 1573 1573 1570 1568 1566 1564 1567 1569 1570 1573 1574 1577 1580 1579 1578 1579 1581 1580 1582 1583 1585 1588 1593 1594 1596 1600 1601 1600 1597 1587 1583 1583 1585
 1567 1567 1567 1568 1567 1568 1568 1569 1570 1570 1572 1574 1574 1573 1572 1569 1567 1570 1571 1570 1569 1567 1567 1568 1568 1565 1564 1566 1571 1571 1569 1570 1572 1573 1577 1580 1582 1582 1584 1586 1583 1580 1578 1577 1576 1574 1575 1574 1571 1567 1566 1566 1568 1570 1571 1571 1571 1567 1563 1562 1563 1565 1567 1570 1572 1574 1575 1575 1576 1579 1580 1580 1582 1584 1584 1587 1591 1593 1595 1597 1597 1597 1594 1586 1581 1580 1580
 1565 1564 1566 1567 1568 1569 1569 1570 1571 1569 1570 1572 1573 1571 1569 1566 1565 1566 1568 1569 1569 1567 1567 1568 1566 1564 1565 1565 1569 1570 1569 1572 1573 1574 1576 1580 1582 1583 1584 1584 1583 1579 1577 1575 1572 1572 1575 1574 1569 1564 1563 1564 1566 1568 1568 1569 1568 1565 1561 1560 1562 1563 1565 1567 1569 1569 1570 1571 1574 1578 1581 1582 1584 1585 1585 1586 1588 1591 1592 1593 1594 1594 1593 1588 1585 1583 1581
 1563 1563 1565 1566 1567 1568 1569 1570 1570 1569 1569 1572 1571 1569 1567 1565 1563 1564 1568 1569 1568 1567 1567 1567 1567 1566 1565 1565 1566 1567 1571 1574 1576 1576 1577 1579 1582 1583 1583 1583 1582 1581 1578 1575 1570 1570 1570 1568 1566 1563 1562 1563 1566 1566 1566 1566 1565 1563 1561 1559 1560 1561 1562 1566 1568 1567 1567 1569 1572 1577 1579 1581 1584 1585 1585 1586 1588 1590 1591 1593 1591 1591 1591 1589 1590 1587 1586
 1563 1563 1564 1565 1566 1567 1568 1570 1570 1569 1571 1572 1570 1568 1566 1563 1562 1564 1567 1567 1565 1564 1565 1567 1567 1567 1566 1566 1568 1571 1573 1575 1577 1577 1577 1579 1581 1582 1581 1580 1580 1580 1580 1579 1574 1571 1567 1565 1563 1564 1563 1563 1565 1565 1563 1564 1563 1561 1559 1557 1558 1560 1561 1564 1565 1564 1566 1569 1573 1575 1577 1580 1584 1585 1586 1587 1588 1587 1587 1588 1588 1588 1590 1588 1588 1587 1584
 1562 1563 1564 1564 1565 1566 1568 1569 1569 1568 1569 1571 1571 1568 1565 1563 1563 1564 1564 1563 1562 1562 1563 1565 1565 1565 1565 1568 1571 1572 1573 1574 1576 1577 1577 1579 1580 1580 1579 1578 1577 1578 1580 1581 1577 1571 1568 1565 1564 1564 1563 1561 1563 1562 1560 1560 1562 1558 1556 1556 1558 1560 1561 1563 1563 1563 1565 1569 1571 1574 1575 1578 1582 1585 1584 1586 1586 1585 1585 1585 1585 1587 1587 1587 1586 1584 1581
 1562 1563 1562 1562 1563 1564 1566 1568 1568 1568 1568 1570 1569 1567 1564 1562 1563 1564 1562 1562 1561 1561 1561 1561 1561 1561 1563 1567 1567 1568 1569 1571 1574 1575 1576 1577 1580 1579 1577 1575 1575 1576 1579 1580 1575 1571 1568 1566 1564 1563 1562 1560 1560 1559 1557 1559 1558 1554 1554 1556 1557 1557 1559 1561 1562 1562 1565 1568 1571 1572 1573 1575 1580 1582 1583 1583 1584 1584 1585 1585 1585 1585 1585 1584 1584 1583 1580
 1560 1562 1561 1562 1562 1563 1566 1568 1567 1566 1567 1568 1567 1565 1563 1562 1563 1565 1564 1562 1562 1561 1559 1557 1557 1559 1561 1562 1562 1562 1565 1567 1569 1571 1572 1576 1578 1578 1575 1574 1574 1577 1578 1577 1574 1571 1569 1567 1565 1564 1562 1559 1557 1556 1556 1557 1555 1552 1553 1554 1554 1555 1557 1560 1562 1563 1564 1566 1569 1570 1572 1576 1580 1582 1582 1581 1582 1584 1585 1584 1585 1584 1581 1581 1584 1583 1581
 1559 1560 1561 1562 1562 1564 1564 1564 1563 1564 1565 1566 1565 1564 1562 1562 1562 1565 1563 1561 1561 1560 1558 1557 1559 1560 1560 1560 1561 1562 1562 1565 1567 1569 1571 1573 1575 1574 1572 1572 1575 1575 1575 1575 1573 1573 1572 1569 1566 1565 1563 1559 1554 1552 1554 1554 1553 1551 1551 1552 1553 1555 1557 1559 1562 1562 1562 1564 1566 1569 1571 1573 1577 1579 1579 1579 1581 1583 1582 1583 1584 1583 1580 1580 1582 1582 1579
 1558 1560 1561 1561 1563 1563 1563 1561 1562 1564 1564 1564 1563 1562 1561 1560 1561 1562 1562 1559 1559 1559 1558 1558 1559 1561 1562 1563 1565 1563 1565 1567 1569 1570 1573 1573 1570 1568 1567 1570 1572 1574 1574 1574 1573 1573 1572 1568 1566 1565 1563 1559 1555 1554 1553 1552 1551 1550 1550 1551 1552 1555 1556 1560 1561 1561 1562 1564 1566 1568 1567 1569 1572 1575 1576 1577 1579 1579 1579 1581 1583 1583 1580 1578 1579 1580 1577
 1558 1559 1560 1561 1561 1563 1561 1561 1561 1562 1563 1562 1562 1562 1561 1560 1559 1560 1560 1558 1557 1558 1558 1558 1558 1561 1562 1564 1565 1565 1565 1568 1571 1573 1575 1572 1567 1564 1565 1568 1572 1573 1573 1573 1571 1570 1567 1565 1564 1562 1561 1559 1557 1555 1553 1551 1551 1550 1551 1551 1552 1554 1556 1559 1561 1561 1562 1564 1566 1566 1566 1566 1571 1572 1573 1574 1575 1574 1576 1579 1581 1580 1577 1575 1577 1579 1577
 1558 1559 1559 1559 1559 1560 1560 1560 1560 1560 1561 1562 1562 1563 1561 1558 1555 1555 1556 1556 1557 1558 1559 1559 1559 1560 1561 1561 1563 1561 1560 1564 1571 1573 1572 1569 1567 1566 1566 1568 1571 1572 1573 1571 1568 1567 1565 1564 1563 1562 1559 1557 1554 1554 1554 1550 1546 1546 1550 1552 1551 1552 1554 1558 1560 1560 1561 1563 1565 1566 1566 1567 1569 1571 1573 1574 1574 1573 1575 1577 1577 1576 1576 1576 1578 1580 1577
 1558 1558 1558 1557 1556 1558 1559 1559 1558 1558 1560 1562 1562 1562 1560 1557 1554 1553 1553 1555 1557 1557 1559 1560 1560 1559 1558 1559 1560 1557 1557 1562 1568 1569 1567 1566 1566 1566 1567 1569 1571 1572 1572 1570 1566 1565 1565 1564 1563 1560 1558 1554 1551 1552 1551 1546 1543 1545 1548 1550 1550 1549 1552 1556 1559 1560 1561 1562 1564 1567 1567 1566 1567 1570 1572 1573 1574 1574 1575 1574 1575 1575 1577 1578 1579 1579 1576
 1559 1558 1556 1556 1556 1557 1558 1557 1557 1557 1558 1559 1559 1559 1558 1557 1556 1554 1554 1556 1556 1555 1556 1558 1559 1557 1557 1558 1558 1557 1558 1562 1565 1565 1564 1564 1564 1565 1566 1568 1570 1570 1569 1568 1566 1564 1563 1561 1559 1557 1555 1552 1551 1552 1550 1545 1543 1544 1546 1548 1549 1549 1552 1556 1559 1560 1562 1562 1564 1566 1567 1566 1566 1568 1569 1570 1572 1573 1572 1572 1573 1572 1574 1577 1576 1575 1573
 1561 1558 1556 1556 1555 1557 1556 1556 1556 1556 1556 1557 1556 1555 1556 1556 1557 1555 1555 1555 1554 1551 1551 1553 1554 1554 1555 1556 1558 1557 1557 1558 1561 1564 1564 1563 1562 1563 1564 1564 1564 1564 1566 1567 1566 1564 1561 1558 1556 1553 1551 1550 1550 1550 1548 1545 1543 1544 1545 1545 1546 1548 1550 1555 1557 1559 1561 1562 1562 1564 1565 1565 1565 1565 1567 1569 1570 1570 1569 1569 1568 1567 1570 1572 1573 1572 1572
 1560 1558 1557 1557 1557 1557 1556 1556 1556 1555 1555 1556 1555 1555 1554 1554 1554 1554 1553 1553 1551 1550 1551 1552 1552 1552 1553 1555 1557 1556 1555 1557 1561 1563 1563 1561 1562 1563 1563 1561 1561 1563 1566 1567 1565 1564 1561 1557 1555 1552 1550 1549 1549 1548 1545 1543 1543 1544 1544 1544 1545 1547 1549 1552 1556 1558 1559 1560 1560 1560 1561 1563 1564 1566 1568 1569 1569 1568 1568 1568 1567 1567 1569 1568 1569 1570 1571
 1560 1560 1559 1559 1558 1557 1557 1557 1556 1556 1556 1555 1555 1556 1555 1554 1553 1552 1552 1552 1551 1550 1551 1552 1552 1552 1552 1554 1555 1555 1555 1557 1559 1561 1560 1561 1563 1565 1564 1561 1564 1565 1565 1564 1563 1562 1560 1556 1554 1552 1551 1550 1549 1546 1543 1542 1542 1543 1544 1545 1548 1550 1549 1551 1553 1555 1556 1558 1559 1559 1560 1562 1564 1567 1568 1569 1568 1567 1567 1567 1566 1566 1565 1564 1564 1566 1568
 1560 1560 1560 1560 1559 1557 1556 1556 1556 1557 1557 1556 1555 1556 1557 1555 1552 1550 1551 1552 1552 1551 1552 1553 1554 1553 1553 1553 1555 1556 1556 1556 1557 1559 1559 1560 1563 1565 1563 1562 1564 1564 1561 1558 1558 1560 1560 1557 1554 1553 1554 1552 1550 1547 1544 1543 1542 1542 1542 1544 1549 1550 1550 1551 1552 1553 1555 1556 1558 1558 1557 1561 1565 1566 1566 1566 1567 1567 1567 1566 1564 1562 1558 1556 1556 1557 1560
 1560 1558 1558 1558 1559 1561 1559 1557 1556 1556 1556 1555 1554 1555 1556 1555 1552 1550 1551 1551 1551 1551 1553 1554 1555 1555 1554 1553 1555 1556 1557 1557 1557 1558 1559 1560 1562 1563 1562 1561 1563 1562 1560 1557 1558 1559 1560 1557 1556 1556 1555 1553 1551 1548 1547 1545 1544 1542 1541 1543 1547 1549 1549 1551 1552 1553 1553 1554 1555 1554 1554 1558 1563 1564 1563 1565 1566 1567 1566 1565 1563 1560 1555 1551 1544 1545 1550
 1558 1555 1554 1556 1559 1564 1563 1560 1555 1554 1555 1555 1553 1554 1555 1555 1554 1553 1551 1549 1549 1551 1553 1554 1554 1556 1556 1554 1553 1555 1557 1558 1558 1559 1559 1559 1561 1562 1560 1559 1559 1561 1560 1558 1558 1558 1557 1557 1558 1557 1555 1553 1550 1548 1548 1548 1546 1544 1543 1545 1548 1548 1547 1549 1551 1551 1551 1552 1551 1551 1552 1556 1560 1561 1561 1563 1566 1565 1564 1564 1562 1561 1558 1551 1543 1540 1539
